# .PCD v0.7 - Point Cloud Data file format
VERSION 0.7
FIELDS x y z
SIZE 4 4 4
TYPE F F F
COUNT 1 1 1
WIDTH 1106
HEIGHT 1
VIEWPOINT 0 0 0 1 0 0 0
POINTS 1106
DATA ascii
0.00011704597 -1.9167806e-05 0.00045207859
0.00011785836 -1.9167277e-05 0.0004520661
0.00011867072 -1.9166748e-05 0.00045205362
0.00011948303 -1.9166218e-05 0.00045204113
0.00012029237 -1.9165223e-05 0.00045201767
0.00012110153 -1.9164214e-05 0.00045199387
0.00012191062 -1.9163208e-05 0.00045197012
0.00012271968 -1.9162208e-05 0.00045194654
0.00012352865 -1.9161209e-05 0.00045192297
0.00012433753 -1.9160208e-05 0.0004518994
0.00012514633 -1.915921e-05 0.00045187582
0.00012595356 -1.9157986e-05 0.00045184695
0.00012675887 -1.9156483e-05 0.00045181153
0.00012756404 -1.9154983e-05 0.00045177614
0.00012836908 -1.9153482e-05 0.00045174075
0.00012917402 -1.9151985e-05 0.00045170542
0.00012997883 -1.9150486e-05 0.00045167009
0.00013078352 -1.9148989e-05 0.00045163475
0.00013158808 -1.914749e-05 0.00045159942
0.00013238944 -1.9145551e-05 0.00045155367
0.0001331903 -1.9143561e-05 0.00045150673
0.00013399099 -1.9141569e-05 0.00045145978
0.00013479151 -1.9139581e-05 0.00045141287
0.00013559185 -1.9137589e-05 0.00045136589
0.00013639203 -1.9135599e-05 0.00045131895
0.00013719204 -1.9133608e-05 0.000451272
0.00013799085 -1.9131474e-05 0.00045122168
0.00013878713 -1.9129018e-05 0.00045116374
0.00013958319 -1.9126561e-05 0.00045110579
0.00014037908 -1.9124107e-05 0.0004510479
0.00014117475 -1.9121651e-05 0.00045099002
0.00014197017 -1.9119192e-05 0.00045093198
0.00014276539 -1.9116733e-05 0.00045087401
0.00014356041 -1.9114274e-05 0.00045081601
0.0001443527 -1.9111485e-05 0.0004507502
0.0001451436 -1.910854e-05 0.00045068076
0.00014593423 -1.9105595e-05 0.00045061132
0.00014672463 -1.9102654e-05 0.00045054193
0.00014751479 -1.9099711e-05 0.00045047252
0.00014830471 -1.9096771e-05 0.0004504032
0.00014909441 -1.9093835e-05 0.00045033396
0.00014988384 -1.9090896e-05 0.0004502646
0.00017844715 -1.910482e-05 0.00045059304
0.00017990041 -1.917306e-05 0.00045220248
-0.00015069472 -1.8278335e-05 0.00045026012
-0.00012550784 -1.827784e-05 0.00045024796
-0.00012522665 -1.8355697e-05 0.00045216584
5.0179562e-05 -1.8358376e-05 0.00045223182
5.0992126e-05 -1.8357166e-05 0.00045220202
5.1804585e-05 -1.8355955e-05 0.00045217219
5.2616935e-05 -1.8354745e-05 0.00045214238
5.3429183e-05 -1.8353536e-05 0.00045211261
5.4241322e-05 -1.8352326e-05 0.00045208281
5.5053442e-05 -1.8351147e-05 0.00045205376
5.5866341e-05 -1.8350258e-05 0.00045203185
5.6679168e-05 -1.834937e-05 0.00045200999
5.7491903e-05 -1.8348479e-05 0.00045198805
5.8304566e-05 -1.834759e-05 0.00045196613
5.9117156e-05 -1.8346704e-05 0.00045194427
5.9929658e-05 -1.8345814e-05 0.00045192236
6.0742084e-05 -1.8344925e-05 0.00045190047
6.1554434e-05 -1.8344037e-05 0.00045187859
6.2366693e-05 -1.8343146e-05 0.00045185664
6.3178879e-05 -1.8342256e-05 0.00045183473
6.3990992e-05 -1.8341367e-05 0.00045181284
6.4803018e-05 -1.8340477e-05 0.0004517909
6.5614964e-05 -1.8339588e-05 0.00045176898
6.6426845e-05 -1.83387e-05 0.00045174712
6.723863e-05 -1.8337809e-05 0.00045172518
6.8050351e-05 -1.8336921e-05 0.00045170329
6.8863141e-05 -1.8336339e-05 0.00045168897
6.9675909e-05 -1.8335764e-05 0.00045167483
7.0488619e-05 -1.8335189e-05 0.00045166066
7.1301285e-05 -1.8334615e-05 0.00045164651
7.2113893e-05 -1.833404e-05 0.00045163234
7.2926458e-05 -1.8333467e-05 0.00045161822
7.3738971e-05 -1.8332892e-05 0.00045160408
7.4551426e-05 -1.8332317e-05 0.00045158991
7.5363838e-05 -1.8331744e-05 0.00045157579
7.6176177e-05 -1.8331166e-05 0.00045156153
7.6988479e-05 -1.8330589e-05 0.00045154736
7.7800723e-05 -1.8330013e-05 0.00045153315
7.8612917e-05 -1.8329436e-05 0.00045151895
7.9425059e-05 -1.8328861e-05 0.00045150475
8.0237151e-05 -1.8328283e-05 0.00045149052
8.1049191e-05 -1.8327708e-05 0.00045147634
8.186241e-05 -1.8327404e-05 0.00045146889
8.267579e-05 -1.8327146e-05 0.00045146252
8.3489147e-05 -1.8326886e-05 0.00045145612
8.4302483e-05 -1.8326627e-05 0.00045144974
8.5115804e-05 -1.8326369e-05 0.00045144337
8.5929096e-05 -1.8326109e-05 0.00045143699
8.6742366e-05 -1.8325853e-05 0.00045143065
8.7555607e-05 -1.8325592e-05 0.00045142425
8.8368834e-05 -1.8325334e-05 0.00045141787
8.9182038e-05 -1.8325076e-05 0.00045141153
8.9995214e-05 -1.8324818e-05 0.00045140515
9.0808368e-05 -1.8324559e-05 0.00045139878
9.1621514e-05 -1.8324303e-05 0.00045139247
9.2434624e-05 -1.8324045e-05 0.00045138612
9.3247712e-05 -1.8323786e-05 0.00045137975
9.4060786e-05 -1.832353e-05 0.00045137343
9.4875097e-05 -1.8323517e-05 0.00045137311
9.56898e-05 -1.8323579e-05 0.00045137465
9.6504518e-05 -1.8323643e-05 0.00045137623
9.7319229e-05 -1.8323704e-05 0.00045137774
9.8133962e-05 -1.8323768e-05 0.00045137931
9.8948687e-05 -1.8323832e-05 0.00045138085
9.976342e-05 -1.8323894e-05 0.0004513824
0.00010057815 -1.8323955e-05 0.00045138391
0.00010139291 -1.8324019e-05 0.00045138548
0.00010220765 -1.8324081e-05 0.00045138702
0.0001030224 -1.8324143e-05 0.00045138854
0.00010383717 -1.8324206e-05 0.00045139011
0.00010465194 -1.8324268e-05 0.00045139165
0.0001054667 -1.832433e-05 0.00045139316
0.00010628148 -1.8324394e-05 0.00045139474
0.00010709626 -1.8324456e-05 0.00045139625
0.00010791078 -1.8324472e-05 0.00045139663
0.00010872514 -1.8324463e-05 0.00045139642
0.00010953953 -1.8324456e-05 0.00045139625
0.00011035391 -1.832445e-05 0.0004513961
0.00011116829 -1.8324445e-05 0.00045139596
0.00011198268 -1.8324437e-05 0.00045139581
0.00011279707 -1.8324434e-05 0.0004513957
0.00011361075 -1.8324314e-05 0.00045139276
0.00011442204 -1.8323813e-05 0.00045138045
0.00011523328 -1.8323311e-05 0.00045136808
0.00011604447 -1.8322809e-05 0.00045135571
0.0001168556 -1.8322307e-05 0.00045134334
0.00011766668 -1.8321802e-05 0.00045133088
0.00011847773 -1.8321298e-05 0.00045131845
0.00011928872 -1.8320794e-05 0.00045130603
0.00012009747 -1.8319954e-05 0.00045128533
0.00012090534 -1.831899e-05 0.00045126161
0.00012171312 -1.8318029e-05 0.00045123792
0.00012252081 -1.8317065e-05 0.0004512142
0.00012332843 -1.8316103e-05 0.00045119048
0.00012413602 -1.831515e-05 0.000451167
0.00012494352 -1.8314196e-05 0.00045114351
0.00012575027 -1.8313147e-05 0.00045111767
0.00012655428 -1.8311712e-05 0.00045108233
0.00012735817 -1.831028e-05 0.00045104706
0.00012816193 -1.8308849e-05 0.00045101179
0.00012896558 -1.8307417e-05 0.00045097651
0.00012976909 -1.8305986e-05 0.00045094124
0.0001305725 -1.8304556e-05 0.00045090605
0.00013137577 -1.8303126e-05 0.00045087081
0.00013217678 -1.83014e-05 0.00045082832
0.00013297636 -1.8299499e-05 0.00045078149
0.0001337758 -1.8297602e-05 0.00045073472
0.00013457506 -1.8295703e-05 0.00045068798
0.00013537415 -1.8293806e-05 0.00045064121
0.00013617308 -1.8291907e-05 0.00045059447
0.00013697184 -1.8290009e-05 0.0004505477
0.00013777032 -1.8288094e-05 0.00045050055
0.00013856534 -1.8285749e-05 0.00045044278
0.00013936019 -1.8283406e-05 0.00045038507
0.00014015481 -1.8281064e-05 0.00045032732
0.00014094924 -1.8278721e-05 0.00045026961
0.00017960648 -1.8327191e-05 0.00045146365
-0.00015069441 -1.7465929e-05 0.00045025919
-0.00012228357 -1.7469083e-05 0.00045034051
3.3043343e-05 -1.7541528e-05 0.0004522081
3.3856417e-05 -1.7540071e-05 0.00045217053
3.4669349e-05 -1.7538612e-05 0.00045213292
3.5482146e-05 -1.7537153e-05 0.00045209532
3.6294805e-05 -1.7535693e-05 0.00045205766
3.7107329e-05 -1.7534232e-05 0.00045202003
3.7919712e-05 -1.7532771e-05 0.00045198234
3.8731967e-05 -1.7531311e-05 0.00045194471
3.9544084e-05 -1.7529852e-05 0.00045190711
4.0356063e-05 -1.7528391e-05 0.00045186945
4.116791e-05 -1.7526932e-05 0.00045183182
4.19797e-05 -1.7525506e-05 0.00045179506
4.2792017e-05 -1.7524349e-05 0.00045176526
4.3604225e-05 -1.7523194e-05 0.00045173545
4.4416331e-05 -1.7522039e-05 0.00045170568
4.5228328e-05 -1.7520884e-05 0.00045167591
4.6040215e-05 -1.7519727e-05 0.0004516461
4.6852005e-05 -1.7518574e-05 0.00045161639
4.7663678e-05 -1.7517421e-05 0.00045158662
4.8475245e-05 -1.7516266e-05 0.00045155684
4.9286704e-05 -1.7515111e-05 0.00045152707
5.009806e-05 -1.7513956e-05 0.00045149733
5.0909312e-05 -1.7512803e-05 0.00045146758
5.1720457e-05 -1.7511651e-05 0.0004514379
5.2531494e-05 -1.7510498e-05 0.00045140815
5.3342425e-05 -1.7509346e-05 0.00045137847
5.4153246e-05 -1.7508191e-05 0.00045134872
5.4963963e-05 -1.750704e-05 0.00045131904
5.5775534e-05 -1.7506189e-05 0.00045129709
5.6587032e-05 -1.7505341e-05 0.00045127523
5.7398458e-05 -1.7504495e-05 0.00045125341
5.8209811e-05 -1.7503649e-05 0.00045123161
5.9021073e-05 -1.7502802e-05 0.00045120975
5.9832266e-05 -1.7501956e-05 0.00045118795
6.0643379e-05 -1.7501108e-05 0.00045116612
6.1454411e-05 -1.7500262e-05 0.0004511443
6.2265361e-05 -1.7499415e-05 0.00045112247
6.3076237e-05 -1.7498569e-05 0.00045110067
6.3887041e-05 -1.7497725e-05 0.00045107887
6.4697757e-05 -1.7496877e-05 0.00045105704
6.55084e-05 -1.7496031e-05 0.00045103524
6.6318957e-05 -1.7495184e-05 0.00045101339
6.7129433e-05 -1.7494336e-05 0.00045099153
6.7939829e-05 -1.749349e-05 0.0004509697
6.8751149e-05 -1.7492895e-05 0.00045095439
6.9562593e-05 -1.7492348e-05 0.00045094028
7.0373993e-05 -1.7491802e-05 0.00045092619
7.1185335e-05 -1.7491253e-05 0.00045091205
7.1996634e-05 -1.7490707e-05 0.00045089799
7.2807874e-05 -1.749016e-05 0.00045088388
7.361907e-05 -1.7489612e-05 0.00045086976
7.4430209e-05 -1.7489067e-05 0.00045085567
7.5241303e-05 -1.7488519e-05 0.00045084159
7.6052347e-05 -1.7487971e-05 0.00045082747
7.6863333e-05 -1.7487424e-05 0.00045081336
7.7674282e-05 -1.748688e-05 0.0004507993
7.8485165e-05 -1.7486333e-05 0.00045078518
7.9295991e-05 -1.7485783e-05 0.00045077104
8.0106765e-05 -1.7485234e-05 0.00045075687
8.0917496e-05 -1.7484685e-05 0.00045074272
8.1729158e-05 -1.7484346e-05 0.00045073402
8.2541221e-05 -1.7484101e-05 0.00045072768
8.3353254e-05 -1.7483853e-05 0.0004507213
8.4165273e-05 -1.7483608e-05 0.00045071496
8.497727e-05 -1.7483362e-05 0.00045070861
8.5789237e-05 -1.7483115e-05 0.00045070224
8.6601176e-05 -1.7482867e-05 0.00045069586
8.7413107e-05 -1.7482622e-05 0.00045068952
8.8225002e-05 -1.7482374e-05 0.00045068315
8.9036883e-05 -1.7482127e-05 0.0004506768
8.9848734e-05 -1.748188e-05 0.00045067043
9.0660571e-05 -1.7481636e-05 0.00045066411
9.1472379e-05 -1.7481389e-05 0.00045065774
9.2284165e-05 -1.7481141e-05 0.00045065137
9.3095936e-05 -1.7480896e-05 0.00045064505
9.3907685e-05 -1.748065e-05 0.00045063873
9.4720359e-05 -1.7480581e-05 0.00045063693
9.5533731e-05 -1.7480641e-05 0.00045063847
9.6347118e-05 -1.7480701e-05 0.00045064001
9.7160504e-05 -1.7480761e-05 0.00045064156
9.7973891e-05 -1.7480819e-05 0.00045064307
9.8787292e-05 -1.7480879e-05 0.00045064461
9.9600693e-05 -1.7480937e-05 0.00045064613
0.0001004141 -1.7480997e-05 0.00045064767
0.00010122752 -1.7481058e-05 0.00045064921
0.00010204094 -1.7481118e-05 0.00045065075
0.00010285437 -1.7481178e-05 0.0004506523
0.00010366779 -1.7481236e-05 0.00045065381
0.00010448124 -1.7481296e-05 0.00045065538
0.00010529468 -1.7481356e-05 0.00045065689
0.00010610813 -1.7481416e-05 0.00045065844
0.00010692157 -1.7481474e-05 0.00045065995
0.00010773484 -1.7481503e-05 0.00045066071
0.00010854789 -1.7481496e-05 0.00045066053
0.00010936095 -1.748149e-05 0.00045066036
0.000110174 -1.7481483e-05 0.00045066018
0.00011098704 -1.7481476e-05 0.00045065998
0.0001118001 -1.748147e-05 0.00045065986
0.00011261315 -1.7481463e-05 0.00045065969
0.00011342621 -1.748146e-05 0.00045065957
0.00011423618 -1.7480981e-05 0.00045064726
0.00011504611 -1.7480505e-05 0.00045063495
0.00011585598 -1.7480026e-05 0.00045062261
0.00011666581 -1.7479546e-05 0.00045061027
0.0001174756 -1.7479069e-05 0.00045059796
0.00011828534 -1.7478591e-05 0.00045058562
0.00011909504 -1.7478113e-05 0.00045057328
0.00011990322 -1.747742e-05 0.00045055541
0.00012070979 -1.7476501e-05 0.00045053175
0.00012151627 -1.7475584e-05 0.00045050812
0.00012232267 -1.7474667e-05 0.00045048448
0.00012312898 -1.7473749e-05 0.00045046082
0.00012393521 -1.7472834e-05 0.00045043722
0.00012474136 -1.7471917e-05 0.00045041359
0.00012554746 -1.7471006e-05 0.0004503901
0.00012635038 -1.7469667e-05 0.00045035558
0.00012715299 -1.7468303e-05 0.0004503204
0.00012795549 -1.7466939e-05 0.00045028524
0.00012875783 -1.7465574e-05 0.00045025005
0.00017931349 -1.7484082e-05 0.00045072718
-0.00015069409 -1.6653525e-05 0.00045025826
-0.00011821503 -1.6655726e-05 0.00045031778
1.9173191e-05 -1.6725549e-05 0.00045220557
1.9987059e-05 -1.6723865e-05 0.00045216005
2.0800762e-05 -1.6722182e-05 0.00045211453
2.1614303e-05 -1.6720498e-05 0.00045206901
2.2427679e-05 -1.6718815e-05 0.00045202349
2.3240893e-05 -1.6717133e-05 0.00045197803
2.4053939e-05 -1.671545e-05 0.00045193252
2.4866831e-05 -1.6713771e-05 0.00045188714
2.5679559e-05 -1.6712094e-05 0.00045184177
2.6492125e-05 -1.6710417e-05 0.00045179646
2.7304528e-05 -1.670874e-05 0.00045175111
2.8116767e-05 -1.6707065e-05 0.0004517058
2.8928918e-05 -1.6705431e-05 0.00045166165
2.9741346e-05 -1.6704043e-05 0.00045162413
3.0553641e-05 -1.6702657e-05 0.00045158665
3.1365798e-05 -1.6701269e-05 0.0004515491
3.2177821e-05 -1.6699882e-05 0.00045151162
3.2989708e-05 -1.6698496e-05 0.0004514741
3.3801465e-05 -1.6697109e-05 0.00045143664
3.4613084e-05 -1.6695723e-05 0.00045139916
3.5424568e-05 -1.6694337e-05 0.00045136167
3.6235917e-05 -1.6692951e-05 0.00045132422
3.7047135e-05 -1.6691565e-05 0.00045128676
3.7858215e-05 -1.6690181e-05 0.0004512493
3.8669161e-05 -1.6688797e-05 0.00045121188
3.9479972e-05 -1.6687411e-05 0.00045117442
4.0290644e-05 -1.6686025e-05 0.00045113693
4.1101179e-05 -1.6684637e-05 0.00045109942
4.1911597e-05 -1.6683256e-05 0.00045106211
4.27226e-05 -1.6682159e-05 0.00045103242
4.3533495e-05 -1.6681059e-05 0.00045100271
4.4344288e-05 -1.6679962e-05 0.00045097302
4.5154975e-05 -1.6678865e-05 0.00045094336
4.5965557e-05 -1.6677768e-05 0.00045091371
4.6776026e-05 -1.6676669e-05 0.00045088402
4.7586389e-05 -1.6675573e-05 0.00045085434
4.8396643e-05 -1.6674474e-05 0.00045082465
4.9206796e-05 -1.6673377e-05 0.00045079499
5.0016839e-05 -1.667228e-05 0.00045076534
5.0826773e-05 -1.6671182e-05 0.00045073565
5.1636605e-05 -1.6670085e-05 0.00045070599
5.2446336e-05 -1.666899e-05 0.00045067639
5.3255953e-05 -1.6667893e-05 0.00045064674
5.4065466e-05 -1.6666798e-05 0.00045061711
5.4874869e-05 -1.6665701e-05 0.00045058745
5.5685017e-05 -1.6664859e-05 0.00045056469
5.6495206e-05 -1.6664053e-05 0.00045054292
5.7305322e-05 -1.6663249e-05 0.00045052118
5.8115354e-05 -1.6662445e-05 0.00045049941
5.8925314e-05 -1.6661641e-05 0.00045047767
5.973519e-05 -1.6660835e-05 0.0004504559
6.0544986e-05 -1.6660029e-05 0.00045043413
6.1354709e-05 -1.6659225e-05 0.00045041239
6.2165011e-05 -1.6658598e-05 0.0004503954
6.2975319e-05 -1.6657988e-05 0.00045037892
6.378557e-05 -1.6657377e-05 0.00045036242
6.4595748e-05 -1.6656766e-05 0.00045034589
6.5405889e-05 -1.6656159e-05 0.00045032945
6.6215958e-05 -1.6655547e-05 0.00045031295
6.7025969e-05 -1.6654938e-05 0.00045029647
6.7835921e-05 -1.6654329e-05 0.00045027997
6.8646448e-05 -1.6653872e-05 0.00045026763
6.9457186e-05 -1.6653477e-05 0.00045025698
7.0267888e-05 -1.6653084e-05 0.00045024633
7.1078553e-05 -1.665269e-05 0.00045023568
-0.00015069376 -1.5841122e-05 0.00045025727
-0.00011172958 -1.5845286e-05 0.00045037558
7.7505056e-06 -1.5908932e-05 0.00045218461
8.5653401e-06 -1.5907061e-05 0.00045213141
9.3799827e-06 -1.5905189e-05 0.00045207821
1.0194435e-05 -1.5903319e-05 0.00045202507
1.1008695e-05 -1.5901447e-05 0.00045197189
1.1822763e-05 -1.5899577e-05 0.00045191875
1.2636639e-05 -1.5897707e-05 0.00045186561
1.3450324e-05 -1.5895837e-05 0.00045181243
1.4263816e-05 -1.5893966e-05 0.00045175923
1.5077114e-05 -1.5892092e-05 0.000451706
1.5890277e-05 -1.5890277e-05 0.00045165437
1.6703481e-05 -1.5888678e-05 0.00045160894
1.7516524e-05 -1.5887081e-05 0.00045156354
1.8329403e-05 -1.5885482e-05 0.00045151811
1.9142119e-05 -1.5883887e-05 0.00045147273
1.995467e-05 -1.5882288e-05 0.00045142733
2.0767058e-05 -1.5880692e-05 0.00045138196
2.1579286e-05 -1.5879097e-05 0.00045133661
2.2391348e-05 -1.5877502e-05 0.00045129127
2.3203247e-05 -1.5875905e-05 0.0004512459
2.4014982e-05 -1.587431e-05 0.00045120055
2.4826555e-05 -1.5872716e-05 0.00045115524
2.5637966e-05 -1.5871121e-05 0.00045110993
2.6449212e-05 -1.5869527e-05 0.00045106461
2.7260297e-05 -1.5867934e-05 0.00045101932
2.8071216e-05 -1.5866339e-05 0.00045097401
2.8882225e-05 -1.5864884e-05 0.00045093262
2.969394e-05 -1.5863885e-05 0.00045090425
3.0505555e-05 -1.5862888e-05 0.0004508759
3.1317068e-05 -1.5861891e-05 0.00045084755
3.2128475e-05 -1.5860893e-05 0.00045081921
3.2939784e-05 -1.5859896e-05 0.00045079086
3.3750992e-05 -1.5858899e-05 0.00045076254
3.4562094e-05 -1.5857901e-05 0.00045073417
3.5373097e-05 -1.5856906e-05 0.00045070585
3.6183996e-05 -1.5855907e-05 0.0004506775
3.6994796e-05 -1.5854912e-05 0.00045064921
3.7805494e-05 -1.5853917e-05 0.00045062089
3.8616083e-05 -1.5852918e-05 0.00045059255
3.9426577e-05 -1.5851923e-05 0.00045056423
4.0236966e-05 -1.5850927e-05 0.00045053591
4.104726e-05 -1.5849932e-05 0.00045050765
4.1857445e-05 -1.5848937e-05 0.00045047933
4.2668064e-05 -1.5848138e-05 0.00045045666
4.3478627e-05 -1.584735e-05 0.00045043425
4.42891e-05 -1.5846559e-05 0.00045041178
4.5099499e-05 -1.584577e-05 0.00045038934
4.5909816e-05 -1.584498e-05 0.0004503669
4.6720048e-05 -1.5844189e-05 0.00045034444
4.75302e-05 -1.58434e-05 0.000450322
4.8340273e-05 -1.584261e-05 0.00045029956
4.9150269e-05 -1.5841822e-05 0.00045027715
4.9960185e-05 -1.5841035e-05 0.00045025474
-0.00015069343 -1.5028726e-05 0.00045025631
-0.00011172944 -1.5032688e-05 0.00045037502
-2.8555203e-06 -1.5093464e-05 0.00045219585
-2.0393811e-06 -1.5091421e-05 0.00045213464
-1.2234632e-06 -1.5089379e-05 0.00045207347
-4.0776587e-07 -1.5087337e-05 0.00045201229
4.077107e-07 -1.5085296e-05 0.00045195114
1.2229667e-06 -1.5083256e-05 0.00045189002
2.0380025e-06 -1.5081218e-05 0.00045182896
2.85283e-06 -1.5079244e-05 0.00045176983
3.667493e-06 -1.5077471e-05 0.00045171671
4.4819653e-06 -1.5075701e-05 0.00045166368
5.296245e-06 -1.5073929e-05 0.00045161057
6.1103342e-06 -1.5072157e-05 0.00045155751
6.9242315e-06 -1.5070386e-05 0.00045150446
7.7380373e-06 -1.5068809e-05 0.00045145719
8.551805e-06 -1.5067465e-05 0.00045141694
9.365428e-06 -1.5066124e-05 0.00045137675
1.0178906e-05 -1.506478e-05 0.0004513365
1.0992239e-05 -1.5063439e-05 0.00045129631
1.1805427e-05 -1.5062096e-05 0.00045125608
1.261847e-05 -1.5060755e-05 0.00045121589
1.343137e-05 -1.5059414e-05 0.00045117573
1.4244122e-05 -1.5058072e-05 0.00045113551
1.5056731e-05 -1.5056731e-05 0.00045109534
1.5869231e-05 -1.5055423e-05 0.00045105617
1.668177e-05 -1.505428e-05 0.00045102192
1.7494183e-05 -1.5053135e-05 0.0004509876
1.8306475e-05 -1.5051991e-05 0.00045095332
1.9118639e-05 -1.5050844e-05 0.00045091897
1.9930683e-05 -1.5049699e-05 0.00045088466
2.07426e-05 -1.5048554e-05 0.00045085035
2.1554395e-05 -1.5047408e-05 0.00045081603
2.2366065e-05 -1.5046262e-05 0.00045078169
2.3177616e-05 -1.5045119e-05 0.00045074744
2.3989038e-05 -1.5043974e-05 0.00045071312
2.4800342e-05 -1.504283e-05 0.00045067887
2.5611516e-05 -1.5041684e-05 0.00045064455
2.6422571e-05 -1.504054e-05 0.00045061027
2.7233502e-05 -1.5039397e-05 0.00045057602
2.8044311e-05 -1.5038254e-05 0.00045054176
2.8855016e-05 -1.5037121e-05 0.00045050783
2.9665962e-05 -1.5036173e-05 0.00045047942
3.0476809e-05 -1.5035225e-05 0.00045045104
3.1287553e-05 -1.5034278e-05 0.00045042267
3.2098196e-05 -1.5033333e-05 0.00045039432
3.2908745e-05 -1.5032389e-05 0.00045036606
3.3719189e-05 -1.5031444e-05 0.00045033777
3.4529527e-05 -1.50305e-05 0.00045030945
3.5339766e-05 -1.5029556e-05 0.00045028119
3.6149908e-05 -1.5028613e-05 0.00045025293
-0.00015069313 -1.4216333e-05 0.00045025538
-0.00011172928 -1.4220092e-05 0.00045037441
-1.2646489e-05 -1.4278295e-05 0.00045221782
-1.1828782e-05 -1.4276116e-05 0.00045214882
-1.1011324e-05 -1.4273939e-05 0.00045207987
-1.0194161e-05 -1.4271826e-05 0.00045201296
-9.377648e-06 -1.4270333e-05 0.00045196566
-8.5613201e-06 -1.4268868e-05 0.00045191924
-7.7451623e-06 -1.4267404e-05 0.00045187291
-6.9291714e-06 -1.4265941e-05 0.00045182655
-6.1133478e-06 -1.4264478e-05 0.00045178022
-5.2976911e-06 -1.4263015e-05 0.00045173388
-4.4822027e-06 -1.4261554e-05 0.00045168761
-3.6668805e-06 -1.4260091e-05 0.00045164127
-2.8517259e-06 -1.4258629e-05 0.00045159497
-2.0367381e-06 -1.4257167e-05 0.00045154867
-1.2219176e-06 -1.4255706e-05 0.00045150239
-4.0726411e-07 -1.4254244e-05 0.00045145609
4.0722242e-07 -1.4252784e-05 0.00045140987
1.221542e-06 -1.4251324e-05 0.00045136359
2.0356949e-06 -1.4249864e-05 0.00045131738
2.8496897e-06 -1.4248448e-05 0.00045127253
3.6635602e-06 -1.4247178e-05 0.00045123231
4.4772855e-06 -1.4245909e-05 0.00045119211
5.2908663e-06 -1.424464e-05 0.00045115192
6.104302e-06 -1.4243371e-05 0.00045111173
6.9175931e-06 -1.4242103e-05 0.00045107157
7.7307386e-06 -1.4240834e-05 0.00045103137
8.5437405e-06 -1.4239567e-05 0.00045099124
9.3565959e-06 -1.4238299e-05 0.00045095108
1.0169309e-05 -1.4237032e-05 0.00045091094
1.0981875e-05 -1.4235763e-05 0.00045087078
1.1794297e-05 -1.4234497e-05 0.00045083067
1.2606576e-05 -1.4233231e-05 0.00045079057
1.3418708e-05 -1.4231963e-05 0.00045075043
1.4230697e-05 -1.4230697e-05 0.00045071033
1.5042542e-05 -1.4229432e-05 0.00045067025
1.5854272e-05 -1.4228193e-05 0.00045063102
1.6666047e-05 -1.4227113e-05 0.0004505968
1.74777e-05 -1.4226035e-05 0.00045056266
1.8289227e-05 -1.4224955e-05 0.00045052846
1.9100633e-05 -1.4223875e-05 0.00045049426
1.9911915e-05 -1.4222796e-05 0.00045046009
2.0723073e-05 -1.4221717e-05 0.0004504259
2.1534104e-05 -1.4220635e-05 0.00045039164
2.2345013e-05 -1.4219554e-05 0.00045035739
2.3155799e-05 -1.4218473e-05 0.00045032316
2.3966461e-05 -1.4217392e-05 0.00045028894
2.4777e-05 -1.4216312e-05 0.00045025471
-0.00015069281 -1.3403943e-05 0.00045025445
-0.00011172915 -1.3407499e-05 0.00045037389
-1.9989293e-05 -1.3462177e-05 0.00045221057
-1.9171186e-05 -1.346062e-05 0.00045215827
-1.8353268e-05 -1.3459064e-05 0.000452106
-1.753554e-05 -1.3457508e-05 0.00045205373
-1.6718001e-05 -1.3455952e-05 0.00045200149
-1.590065e-05 -1.3454397e-05 0.00045194925
-1.5083489e-05 -1.3452842e-05 0.00045189701
-1.4266515e-05 -1.3451286e-05 0.00045184474
-1.3449732e-05 -1.3449732e-05 0.00045179256
-1.2633137e-05 -1.3448178e-05 0.00045174034
-1.1816731e-05 -1.3446625e-05 0.00045168816
-1.1000513e-05 -1.3445072e-05 0.00045163601
-1.018452e-05 -1.3443567e-05 0.00045158545
-9.3687968e-06 -1.3442186e-05 0.00045153909
-8.553242e-06 -1.3440808e-05 0.00045149279
-7.7378536e-06 -1.3439429e-05 0.00045144648
-6.9226326e-06 -1.3438052e-05 0.00045140018
-6.1075789e-06 -1.3436674e-05 0.0004513539
-5.2926925e-06 -1.3435297e-05 0.00045130766
-4.4779736e-06 -1.3433921e-05 0.00045126144
-3.6634212e-06 -1.3432545e-05 0.00045121519
-2.8490358e-06 -1.3431169e-05 0.00045116901
-2.0348173e-06 -1.3429793e-05 0.00045112279
-1.2207653e-06 -1.3428418e-05 0.0004510766
-4.068801e-07 -1.3427043e-05 0.00045103041
4.0683844e-07 -1.3425669e-05 0.00045098423
1.2203903e-06 -1.3424294e-05 0.00045093804
2.0337759e-06 -1.342292e-05 0.00045089191
2.8470035e-06 -1.3421588e-05 0.00045084715
3.660107e-06 -1.3420393e-05 0.00045080701
4.4730659e-06 -1.3419197e-05 0.00045076685
5.28588e-06 -1.3418004e-05 0.00045072674
6.0985494e-06 -1.3416809e-05 0.00045068661
6.9110747e-06 -1.3415615e-05 0.00045064653
7.7234545e-06 -1.3414421e-05 0.0004506064
8.5356905e-06 -1.3413228e-05 0.00045056632
9.347782e-06 -1.3412035e-05 0.00045052625
1.0159728e-05 -1.341084e-05 0.00045048614
1.0971531e-05 -1.3409649e-05 0.00045044612
1.1783189e-05 -1.3408457e-05 0.00045040605
1.2594704e-05 -1.3407265e-05 0.00045036603
1.3406072e-05 -1.3406072e-05 0.00045032596
1.4217298e-05 -1.3404881e-05 0.00045028594
1.5028379e-05 -1.3403689e-05 0.00045024592
-0.00015069249 -1.2591555e-05 0.00045025346
-0.00011172901 -1.2594906e-05 0.00045037328
-2.6517191e-05 -1.264666e-05 0.00045222393
-2.5697962e-05 -1.2645029e-05 0.00045216558
-2.4878944e-05 -1.2643398e-05 0.00045210726
-2.4060138e-05 -1.2641767e-05 0.00045204896
-2.3241628e-05 -1.2640184e-05 0.00045199232
-2.2423541e-05 -1.2638723e-05 0.00045194011
-2.1605643e-05 -1.2637263e-05 0.0004518879
-2.0787935e-05 -1.2635804e-05 0.00045183572
-1.9970414e-05 -1.2634344e-05 0.0004517835
-1.9153083e-05 -1.2632885e-05 0.00045173135
-1.8335941e-05 -1.2631426e-05 0.00045167917
-1.7518985e-05 -1.2629966e-05 0.00045162698
-1.6702221e-05 -1.2628509e-05 0.00045157483
-1.5885644e-05 -1.2627051e-05 0.0004515227
-1.5069255e-05 -1.2625592e-05 0.00045147055
-1.4253054e-05 -1.2624134e-05 0.00045141843
-1.3437043e-05 -1.2622677e-05 0.0004513663
-1.262122e-05 -1.262122e-05 0.0004513142
-1.1805584e-05 -1.2619763e-05 0.00045126211
-1.0990138e-05 -1.2618307e-05 0.00045121004
-1.0174916e-05 -1.2616897e-05 0.00045115963
-9.3599638e-06 -1.2615604e-05 0.00045111339
-8.5451784e-06 -1.2614311e-05 0.00045106717
-7.7305594e-06 -1.2613019e-05 0.00045102095
-6.9161078e-06 -1.2611727e-05 0.00045097474
-6.1018231e-06 -1.2610434e-05 0.00045092855
-5.2877049e-06 -1.2609142e-05 0.00045088233
-4.4737535e-06 -1.260785e-05 0.00045083615
-3.6599686e-06 -1.2606559e-05 0.00045078996
-2.846351e-06 -1.2605269e-05 0.00045074383
-2.0328998e-06 -1.2603979e-05 0.00045069773
-1.2196152e-06 -1.2602691e-05 0.00045065163
-4.0649678e-07 -1.26014e-05 0.0004506055
4.0645523e-07 -1.2600111e-05 0.00045055943
1.219241e-06 -1.2598824e-05 0.00045051335
2.0318603e-06 -1.2597534e-05 0.00045046725
2.8443221e-06 -1.2596284e-05 0.00045042255
3.6566605e-06 -1.2595164e-05 0.0004503825
4.4688545e-06 -1.2594044e-05 0.00045034246
5.2809032e-06 -1.2592924e-05 0.00045030238
6.0928082e-06 -1.2591803e-05 0.00045026233
-0.00015069217 -1.1779172e-05 0.00045025253
-0.00011172887 -1.1782317e-05 0.00045037273
-3.222721e-05 -1.1830242e-05 0.00045220464
-3.1407275e-05 -1.1828714e-05 0.00045214623
-3.0587555e-05 -1.1827188e-05 0.0004520879
-2.9768051e-05 -1.1825664e-05 0.00045202964
-2.8948754e-05 -1.1824139e-05 0.00045197134
-2.8129669e-05 -1.1822614e-05 0.00045191307
-2.7310796e-05 -1.1821091e-05 0.00045185484
-2.6492133e-05 -1.1819567e-05 0.00045179657
-2.5673682e-05 -1.1818044e-05 0.00045173836
-2.4855441e-05 -1.1816521e-05 0.00045168016
-2.403741e-05 -1.1814998e-05 0.00045162195
-2.3219685e-05 -1.1813524e-05 0.0004515656
-2.2402373e-05 -1.1812161e-05 0.00045151348
-2.1585249e-05 -1.1810797e-05 0.00045146135
-2.0768315e-05 -1.1809434e-05 0.00045140926
-1.9951571e-05 -1.1808072e-05 0.00045135719
-1.9135012e-05 -1.180671e-05 0.00045130512
-1.8318642e-05 -1.1805347e-05 0.00045125303
-1.7502462e-05 -1.1803985e-05 0.00045120099
-1.668647e-05 -1.1802625e-05 0.00045114898
-1.5870664e-05 -1.1801264e-05 0.00045109694
-1.5055049e-05 -1.1799903e-05 0.00045104494
-1.4239619e-05 -1.1798542e-05 0.0004509929
-1.3424378e-05 -1.1797181e-05 0.00045094089
-1.2609325e-05 -1.1795821e-05 0.00045088888
-1.179446e-05 -1.179446e-05 0.0004508369
-1.0979784e-05 -1.17931e-05 0.00045078492
-1.0165332e-05 -1.1791785e-05 0.00045073463
-9.351148e-06 -1.1790578e-05 0.0004506885
-8.5371312e-06 -1.1789371e-05 0.00045064237
-7.7232799e-06 -1.1788164e-05 0.00045059621
-6.9095959e-06 -1.1786958e-05 0.00045055011
-6.0960779e-06 -1.1785751e-05 0.00045050398
-5.2827272e-06 -1.1784546e-05 0.00045045791
-4.4695421e-06 -1.1783338e-05 0.00045041175
-3.6565243e-06 -1.1782134e-05 0.00045036571
-2.8436721e-06 -1.1780928e-05 0.00045031961
-2.0309867e-06 -1.1779723e-05 0.00045027354
-0.00015069186 -1.0966794e-05 0.00045025159
-0.00011172873 -1.096973e-05 0.00045037217
-3.793768e-05 -1.1014165e-05 0.00045219649
-3.7116526e-05 -1.1012597e-05 0.00045213208
-3.629574e-05 -1.1011067e-05 0.0004520693
-3.5475525e-05 -1.1009646e-05 0.00045201095
-3.4655521e-05 -1.1008225e-05 0.0004519526
-3.3835731e-05 -1.1006804e-05 0.00045189427
-3.3016149e-05 -1.1005383e-05 0.00045183595
-3.2196782e-05 -1.1003964e-05 0.00045177765
-3.1377625e-05 -1.1002544e-05 0.00045171936
-3.0558684e-05 -1.1001126e-05 0.00045166115
-2.9739947e-05 -1.0999706e-05 0.00045160289
-2.8921424e-05 -1.0998288e-05 0.00045154465
-2.8103112e-05 -1.099687e-05 0.00045148641
-2.728501e-05 -1.0995452e-05 0.0004514282
-2.6467122e-05 -1.0994036e-05 0.00045137006
-2.5649446e-05 -1.099262e-05 0.00045131193
-2.4831981e-05 -1.0991205e-05 0.00045125384
-2.4014727e-05 -1.0989791e-05 0.00045119578
-2.3197785e-05 -1.0988424e-05 0.00045113967
-2.2381244e-05 -1.0987156e-05 0.00045108763
-2.1564894e-05 -1.0985889e-05 0.00045103562
-2.0748732e-05 -1.0984623e-05 0.00045098361
-1.9932759e-05 -1.0983357e-05 0.00045093163
-1.9116973e-05 -1.0982091e-05 0.00045087966
-1.8301374e-05 -1.0980824e-05 0.00045082768
-1.7485967e-05 -1.097956e-05 0.00045077575
-1.6670743e-05 -1.0978295e-05 0.0004507238
-1.585571e-05 -1.097703e-05 0.00045067188
-1.5040864e-05 -1.0975766e-05 0.00045061996
-1.4226206e-05 -1.0974501e-05 0.00045056807
-1.3411734e-05 -1.0973237e-05 0.00045051618
-1.2597451e-05 -1.0971974e-05 0.00045046429
-1.1783356e-05 -1.0970711e-05 0.00045041245
-1.0969447e-05 -1.0969447e-05 0.00045036056
-1.0155766e-05 -1.0968227e-05 0.00045031047
-9.3423487e-06 -1.0967105e-05 0.0004502644
-0.00015069154 -1.0154416e-05 0.00045025063
-0.00011172859 -1.0157144e-05 0.00045037159
-4.3650947e-05 -1.019882e-05 0.00045221948
-4.2828942e-05 -1.0197367e-05 0.0004521551
-4.2007177e-05 -1.0195917e-05 0.00045209078
-4.1185642e-05 -1.0194466e-05 0.00045202643
-4.0364339e-05 -1.0193015e-05 0.00045196211
-3.9543273e-05 -1.0191565e-05 0.00045189782
-3.8722435e-05 -1.0190114e-05 0.0004518335
-3.7901838e-05 -1.0188666e-05 0.00045176927
-3.7081471e-05 -1.0187217e-05 0.00045170504
-3.6261481e-05 -1.0185809e-05 0.00045164258
-3.5442044e-05 -1.0184495e-05 0.00045158435
-3.4622823e-05 -1.0183183e-05 0.00045152614
-3.3803804e-05 -1.018187e-05 0.0004514679
-3.2985005e-05 -1.0180556e-05 0.00045140969
-3.2166408e-05 -1.0179244e-05 0.00045135149
-3.134803e-05 -1.0177931e-05 0.00045129331
-3.0529864e-05 -1.0176621e-05 0.00045123519
-2.9711904e-05 -1.0175309e-05 0.00045117704
-2.8894156e-05 -1.0173999e-05 0.00045111892
-2.8076618e-05 -1.0172688e-05 0.0004510608
-2.725929e-05 -1.0171377e-05 0.00045100268
-2.6442176e-05 -1.0170068e-05 0.00045094462
-2.5625644e-05 -1.0168907e-05 0.00045089313
-2.4809404e-05 -1.0167789e-05 0.00045084357
-2.3993343e-05 -1.0166671e-05 0.000450794
-2.3177556e-05 -1.0165594e-05 0.00045074627
-2.2362105e-05 -1.0164593e-05 0.00045070186
-2.1546815e-05 -1.0163592e-05 0.00045065751
-2.073169e-05 -1.0162593e-05 0.00045061318
-1.9916721e-05 -1.0161592e-05 0.00045056883
-1.9101913e-05 -1.0160592e-05 0.00045052447
-1.8287266e-05 -1.0159592e-05 0.00045048015
-1.7472781e-05 -1.0158594e-05 0.00045043585
-1.6658454e-05 -1.0157594e-05 0.00045039153
-1.5844287e-05 -1.0156594e-05 0.0004503472
-1.5030282e-05 -1.0155596e-05 0.00045030293
-1.4216435e-05 -1.0154597e-05 0.00045025864
-0.00015069122 -9.342044e-06 0.0004502497
-0.00011172844 -9.3445606e-06 0.00045037101
-4.8541933e-05 -9.3820545e-06 0.00045217806
-4.771931e-05 -9.3807184e-06 0.00045211369
-4.6896923e-05 -9.3793842e-06 0.00045204937
-4.6074761e-05 -9.3780491e-06 0.00045198502
-4.5252847e-05 -9.3767158e-06 0.00045192076
-4.4431155e-05 -9.3753815e-06 0.00045185644
-4.361054e-05 -9.3742283e-06 0.00045180088
-4.2790194e-05 -9.3730905e-06 0.00045174602
-4.1970045e-05 -9.3719518e-06 0.00045169116
-4.1150099e-05 -9.370814e-06 0.00045163633
-4.0330346e-05 -9.3696763e-06 0.00045158147
-3.9510796e-05 -9.3685394e-06 0.00045152669
-3.8691443e-05 -9.3674025e-06 0.00045147189
-3.7872294e-05 -9.3662657e-06 0.00045141712
-3.7053334e-05 -9.3651288e-06 0.00045136231
-3.623472e-05 -9.3640283e-06 0.00045130929
-3.5416564e-05 -9.3629997e-06 0.00045125969
-3.4598586e-05 -9.3619701e-06 0.00045121007
-3.3780783e-05 -9.3609397e-06 0.00045116042
-3.2963166e-05 -9.359911e-06 0.00045111083
-3.2145726e-05 -9.3588815e-06 0.00045106123
-3.1328465e-05 -9.3578528e-06 0.00045101164
-3.0511383e-05 -9.3568242e-06 0.00045096205
-2.9694482e-05 -9.3557956e-06 0.00045091248
-2.8877759e-05 -9.3547669e-06 0.00045086292
-2.8061218e-05 -9.3537392e-06 0.00045081339
-2.7244854e-05 -9.3527115e-06 0.00045076382
-2.642867e-05 -9.3516828e-06 0.00045071429
-2.5612664e-05 -9.3506551e-06 0.00045066475
-2.4796842e-05 -9.3496292e-06 0.00045061528
-2.3981196e-05 -9.3486015e-06 0.00045056577
-2.3165823e-05 -9.3476128e-06 0.00045051813
-2.2350787e-05 -9.3466933e-06 0.00045047377
-2.153591e-05 -9.3457729e-06 0.00045042942
-2.0721194e-05 -9.3448525e-06 0.00045038507
-1.990664e-05 -9.343933e-06 0.00045034074
-1.9092246e-05 -9.3430144e-06 0.00045029647
-1.8278011e-05 -9.3420949e-06 0.00045025218
-0.00015069092 -8.5296742e-06 0.00045024877
-0.0001117283 -8.5319789e-06 0.00045037043
-0.00011131564 -8.5627416e-06 0.00045199424
-0.00011051269 -8.5637148e-06 0.00045204561
-0.00010970958 -8.5646889e-06 0.00045209704
-0.00010890628 -8.565662e-06 0.00045214844
-0.00010810279 -8.566637e-06 0.00045219986
-5.3441738e-05 -8.5669963e-06 0.00045221884
-5.2619711e-05 -8.5659995e-06 0.00045216622
-5.1797873e-05 -8.5650026e-06 0.0004521136
-5.0976232e-05 -8.5640067e-06 0.00045206104
-5.0154777e-05 -8.5630109e-06 0.00045200845
-4.9333445e-05 -8.5620022e-06 0.00045195525
-4.8512124e-05 -8.5609636e-06 0.00045190039
-4.7691003e-05 -8.5599231e-06 0.0004518455
-4.6870082e-05 -8.5588845e-06 0.00045179066
-4.6049357e-05 -8.5578449e-06 0.0004517358
-4.5228833e-05 -8.5568063e-06 0.00045168094
-4.4408505e-05 -8.5557667e-06 0.00045162608
-4.3588378e-05 -8.5547281e-06 0.00045157125
-4.276845e-05 -8.5536903e-06 0.00045151648
-4.1948722e-05 -8.5526517e-06 0.00045146167
-4.1129195e-05 -8.5516149e-06 0.0004514069
-4.0309864e-05 -8.5505771e-06 0.00045135216
-3.9490733e-05 -8.5495394e-06 0.00045129738
-3.8671798e-05 -8.5485026e-06 0.00045124264
-3.785306e-05 -8.5474649e-06 0.00045118787
-3.7034526e-05 -8.5464289e-06 0.00045113318
-3.6216337e-05 -8.5454276e-06 0.00045108033
-3.53986e-05 -8.544489e-06 0.00045103079
-3.4581037e-05 -8.5435504e-06 0.00045098123
-3.3763656e-05 -8.5426118e-06 0.00045093169
-3.2946456e-05 -8.5416741e-06 0.00045088219
-3.2129436e-05 -8.5407355e-06 0.00045083265
-3.1312593e-05 -8.5397987e-06 0.00045078318
-3.0495929e-05 -8.5388601e-06 0.00045073364
-2.9679442e-05 -8.5379215e-06 0.00045068411
-2.8863136e-05 -8.5369838e-06 0.0004506346
-2.8047009e-05 -8.5360462e-06 0.0004505851
-2.7231059e-05 -8.5351085e-06 0.00045053559
-2.6415291e-05 -8.5341708e-06 0.00045048611
-2.5599702e-05 -8.533234e-06 0.00045043667
-2.4784293e-05 -8.5322972e-06 0.00045038722
-2.396906e-05 -8.5313604e-06 0.00045033774
-2.3154105e-05 -8.53046e-06 0.00045029022
-2.2339482e-05 -8.5296206e-06 0.00045024592
-0.00015069058 -7.7173072e-06 0.00045024778
-0.00011172816 -7.7193999e-06 0.00045036987
-0.00011126029 -7.7433897e-06 0.00045176951
-0.00011045775 -7.7442701e-06 0.00045182084
-0.00010965503 -7.7451505e-06 0.00045187221
-0.00010885211 -7.7460309e-06 0.00045192355
-0.00010804905 -7.7469131e-06 0.00045197504
-0.00010724582 -7.7477971e-06 0.00045202661
-0.00010644215 -7.748662e-06 0.0004520771
-0.00010563636 -7.749386e-06 0.0004521193
-0.00010483043 -7.7501099e-06 0.00045216153
-0.00010402434 -7.750833e-06 0.00045220373
-5.7521305e-05 -7.7510977e-06 0.00045221919
-5.670001e-05 -7.750361e-06 0.0004521762
-5.5878874e-05 -7.7496243e-06 0.00045213324
-5.5057888e-05 -7.7488876e-06 0.00045209026
-5.4236381e-05 -7.7480545e-06 0.00045204163
-5.3414569e-05 -7.7471514e-06 0.00045198895
-5.259295e-05 -7.7462482e-06 0.00045193627
-5.1771538e-05 -7.7453478e-06 0.00045188374
-5.0950312e-05 -7.7444474e-06 0.00045183118
-5.0129274e-05 -7.7435461e-06 0.00045177861
-4.9308357e-05 -7.7426348e-06 0.00045172544
-4.8487458e-05 -7.7416953e-06 0.00045167061
-4.7666759e-05 -7.7407558e-06 0.00045161581
-4.6846257e-05 -7.7398163e-06 0.00045156101
-4.6025954e-05 -7.7388777e-06 0.00045150623
-4.5205848e-05 -7.7379382e-06 0.00045145143
-4.4385946e-05 -7.7369996e-06 0.00045139669
-4.356624e-05 -7.7360619e-06 0.00045134194
-4.2746728e-05 -7.7351224e-06 0.00045128714
-4.1927422e-05 -7.7341847e-06 0.00045123242
-4.1108309e-05 -7.7332461e-06 0.00045117768
-4.02894e-05 -7.7323084e-06 0.00045112299
-3.9470684e-05 -7.7313707e-06 0.00045106828
-3.8652168e-05 -7.7304339e-06 0.00045101359
-3.7833852e-05 -7.7294972e-06 0.00045095893
-3.7015736e-05 -7.7285604e-06 0.00045090428
-3.6197973e-05 -7.7276572e-06 0.0004508516
-3.538065e-05 -7.7268087e-06 0.00045080209
-3.4563505e-05 -7.7259601e-06 0.00045075259
-3.3746543e-05 -7.7251116e-06 0.00045070311
-3.2929758e-05 -7.7242639e-06 0.00045065364
-3.2113152e-05 -7.7234163e-06 0.00045060419
-3.1296728e-05 -7.7225695e-06 0.00045055477
-3.0480482e-05 -7.7217219e-06 0.00045050532
-2.9664414e-05 -7.7208751e-06 0.0004504559
-2.8848523e-05 -7.7200275e-06 0.00045040646
-2.8032813e-05 -7.7191798e-06 0.00045035704
-2.721728e-05 -7.7183331e-06 0.00045030762
-2.6401927e-05 -7.7174864e-06 0.0004502582
-0.00015069028 -6.9049456e-06 0.00045024688
-0.00011172802 -6.9068228e-06 0.00045036929
-0.00011120501 -6.924854e-06 0.00045154503
-0.00011040286 -6.9256403e-06 0.00045159631
-0.00010960054 -6.9264279e-06 0.00045164768
-0.00010879806 -6.9272178e-06 0.00045169916
-0.00010799541 -6.9280072e-06 0.00045175065
-0.00010719256 -6.9287967e-06 0.00045180213
-0.00010638914 -6.9295611e-06 0.00045185196
-0.00010558375 -6.9302077e-06 0.00045189413
-0.00010477821 -6.9308544e-06 0.0004519363
-0.00010397251 -6.9315006e-06 0.00045197844
-0.00010316665 -6.9321468e-06 0.00045202058
-0.00010236065 -6.932793e-06 0.0004520627
-0.0001015545 -6.9334396e-06 0.00045210487
-0.00010074663 -6.9339781e-06 0.00045214
-9.9938152e-05 -6.9344837e-06 0.00045217297
-9.9129538e-05 -6.9349885e-06 0.00045220586
-6.2416562e-05 -6.9351736e-06 0.00045221794
-6.1596111e-05 -6.9346611e-06 0.00045218453
-6.0775776e-05 -6.9341486e-06 0.00045215111
-5.9955557e-05 -6.9336361e-06 0.00045211767
-5.913432e-05 -6.932989e-06 0.0004520755
-5.831314e-05 -6.9323314e-06 0.0004520326
-5.749211e-05 -6.9316729e-06 0.00045198968
-5.6671241e-05 -6.9310149e-06 0.00045194678
-5.5850516e-05 -6.9303564e-06 0.00045190382
-5.5029956e-05 -6.929698e-06 0.00045186089
-5.4208827e-05 -6.9289481e-06 0.000451812
-5.3387441e-05 -6.9281409e-06 0.00045175938
-5.2566236e-05 -6.9273337e-06 0.00045170673
-5.1745224e-05 -6.9265261e-06 0.00045165408
-5.0924416e-05 -6.9257208e-06 0.00045160155
-5.0103801e-05 -6.9249154e-06 0.00045154904
-4.9283295e-05 -6.9240996e-06 0.00045149584
-4.8462818e-05 -6.9232597e-06 0.00045144107
-4.7642534e-05 -6.9224197e-06 0.0004513863
-4.6822457e-05 -6.9215803e-06 0.00045133158
-4.6002573e-05 -6.9207408e-06 0.00045127684
-4.5182889e-05 -6.9199018e-06 0.00045122212
-4.4363402e-05 -6.9190628e-06 0.00045116741
-4.3544114e-05 -6.9182238e-06 0.00045111272
-4.2725027e-05 -6.9173852e-06 0.00045105803
-4.190614e-05 -6.9165471e-06 0.00045100338
-4.1087445e-05 -6.915709e-06 0.00045094872
-4.0268955e-05 -6.9148709e-06 0.00045089409
-3.9450657e-05 -6.9140328e-06 0.00045083943
-3.8632563e-05 -6.9131952e-06 0.00045078481
-3.7814665e-05 -6.912358e-06 0.00045073021
-3.6996964e-05 -6.9115204e-06 0.00045067561
-3.6179626e-05 -6.910715e-06 0.00045062308
-3.5362718e-05 -6.909956e-06 0.0004505736
-3.4545992e-05 -6.9091984e-06 0.00045052418
-3.3729444e-05 -6.9084404e-06 0.00045047476
-3.2913074e-05 -6.9076818e-06 0.00045042532
-3.2096887e-05 -6.9069247e-06 0.00045037593
-3.1280873e-05 -6.9061671e-06 0.00045032654
-3.0465044e-05 -6.9054099e-06 0.00045027715
-0.00015068996 -6.0925859e-06 0.00045024592
-0.00011172787 -6.0942475e-06 0.00045036871
-0.00011114977 -6.1071305e-06 0.00045132075
-0.00011034806 -6.1078263e-06 0.00045137218
-0.00010954616 -6.108522e-06 0.00045142361
-0.00010874408 -6.1092178e-06 0.00045147503
-0.00010794181 -6.109914e-06 0.00045152646
-0.00010713936 -6.1106102e-06 0.00045157791
-0.00010633619 -6.1112755e-06 0.00045162707
-0.0001055312 -6.1118453e-06 0.00045166918
-0.00010472603 -6.1124142e-06 0.00045171124
-0.00010392073 -6.112984e-06 0.00045175335
-0.00010311526 -6.1135534e-06 0.00045179541
-0.00010230966 -6.1141232e-06 0.00045183752
-0.0001015039 -6.114693e-06 0.00045187963
-0.00010069631 -6.1151604e-06 0.00045191418
-9.9888239e-05 -6.1156061e-06 0.00045194713
-9.908004e-05 -6.1160517e-06 0.00045198004
-9.8271732e-05 -6.1164978e-06 0.00045201302
-9.7463315e-05 -6.1169444e-06 0.00045204602
-9.665476e-05 -6.1173901e-06 0.00045207894
-9.5845266e-05 -6.117783e-06 0.00045210798
-9.5034506e-05 -6.1181013e-06 0.0004521315
-9.4223644e-05 -6.1184187e-06 0.00045215496
-9.3412702e-05 -6.1187361e-06 0.00045217841
-9.260168e-05 -6.119054e-06 0.0004522019
-9.1790571e-05 -6.1193714e-06 0.00045222539
-6.9762187e-05 -6.1194901e-06 0.00045223415
-6.8942645e-05 -6.1191695e-06 0.00045221046
-6.8123183e-05 -6.1188484e-06 0.00045218674
-6.7303801e-05 -6.1185278e-06 0.00045216302
-6.6484514e-05 -6.1182068e-06 0.0004521393
-6.5665306e-05 -6.1178857e-06 0.00045211558
-6.4845801e-05 -6.1175283e-06 0.00045208918
-6.4025393e-05 -6.1170758e-06 0.00045205574
-6.3205109e-05 -6.1166229e-06 0.00045202227
-6.2384941e-05 -6.1161704e-06 0.00045198883
-6.1564897e-05 -6.1157184e-06 0.00045195542
-6.074498e-05 -6.1152664e-06 0.00045192201
-5.992518e-05 -6.1148144e-06 0.0004518886
-5.9104317e-05 -6.1142396e-06 0.00045184614
-5.8283549e-05 -6.1136593e-06 0.00045180324
-5.7462948e-05 -6.1130795e-06 0.0004517604
-5.664249e-05 -6.1124988e-06 0.0004517175
-5.5822191e-05 -6.111919e-06 0.00045167463
-5.5002052e-05 -6.1113392e-06 0.00045163179
-5.4181306e-05 -6.1106734e-06 0.0004515826
-5.3360334e-05 -6.1099618e-06 0.00045153001
-5.2539552e-05 -6.1092505e-06 0.00045147742
-5.1718962e-05 -6.1085389e-06 0.00045142483
-5.0898565e-05 -6.1078276e-06 0.0004513723
-5.0078361e-05 -6.1071169e-06 0.00045131976
-4.9258262e-05 -6.1063961e-06 0.0004512665
-4.8438204e-05 -6.1056558e-06 0.00045121179
-4.7618345e-05 -6.1049159e-06 0.0004511571
-4.6798679e-05 -6.1041756e-06 0.00045110239
-4.5979214e-05 -6.1034357e-06 0.0004510477
-4.5159952e-05 -6.1026963e-06 0.00045099307
-4.4340886e-05 -6.1019568e-06 0.00045093842
-4.3522017e-05 -6.1012174e-06 0.00045088379
-4.2703348e-05 -6.1004785e-06 0.00045082916
-4.1884876e-05 -6.099739e-06 0.00045077453
-4.1066603e-05 -6.0990001e-06 0.00045071993
-4.0248524e-05 -6.0982616e-06 0.00045066533
-3.9430986e-05 -6.0975749e-06 0.00045061461
-3.8613631e-05 -6.0968891e-06 0.00045056391
-3.7796457e-05 -6.0962029e-06 0.00045051321
-3.6979472e-05 -6.0955172e-06 0.00045046254
-3.616283e-05 -6.0948587e-06 0.00045041388
-3.5346577e-05 -6.0942375e-06 0.00045036795
-3.4530491e-05 -6.0936163e-06 0.00045032206
-3.3714572e-05 -6.0929951e-06 0.00045027616
-0.00015068964 -5.2802302e-06 0.00045024496
-0.00011172774 -5.2816749e-06 0.00045036816
-0.00011112101 -5.2914766e-06 0.00045120396
-0.00011031862 -5.2920368e-06 0.00045125172
-0.00010951603 -5.2925966e-06 0.00045129945
-0.00010871331 -5.2931573e-06 0.00045134727
-0.0001079104 -5.2937175e-06 0.00045139506
-0.00010710732 -5.2942783e-06 0.00045144284
-0.00010630349 -5.2948099e-06 0.00045148819
-0.00010549805 -5.2952691e-06 0.00045152733
-0.00010469247 -5.295728e-06 0.00045156648
-0.00010388676 -5.2961873e-06 0.00045160565
-0.00010308089 -5.296647e-06 0.00045164482
-0.00010227491 -5.2971068e-06 0.00045168403
-0.00010146877 -5.2975665e-06 0.00045172323
-0.00010066083 -5.2979385e-06 0.00045175495
-9.9852521e-05 -5.2982973e-06 0.00045178554
-9.9044097e-05 -5.2986557e-06 0.0004518161
-9.8235578e-05 -5.2990144e-06 0.00045184672
-9.7426942e-05 -5.2993737e-06 0.00045187733
-9.6618191e-05 -5.299732e-06 0.00045190789
-9.5808486e-05 -5.300044e-06 0.00045193449
-9.4997682e-05 -5.3003e-06 0.00045195632
-9.4186813e-05 -5.3005565e-06 0.00045197821
-9.3375857e-05 -5.300813e-06 0.00045200007
-9.256482e-05 -5.301069e-06 0.00045202189
-9.1753704e-05 -5.301325e-06 0.00045204375
-9.0942405e-05 -5.3015751e-06 0.00045206505
-9.0129397e-05 -5.3017293e-06 0.00045207821
-8.931636e-05 -5.3018844e-06 0.00045209142
-8.8503264e-05 -5.302039e-06 0.00045210461
-8.7690118e-05 -5.3021931e-06 0.00045211776
-8.6876935e-05 -5.3023482e-06 0.00045213097
-8.6063701e-05 -5.3025033e-06 0.00045214419
-8.5249259e-05 -5.3025856e-06 0.00045215123
-8.4434294e-05 -5.302637e-06 0.0004521556
-8.3619314e-05 -5.3026879e-06 0.00045215996
-8.2804312e-05 -5.3027393e-06 0.00045216433
-8.1989296e-05 -5.3027907e-06 0.00045216869
-8.1174272e-05 -5.3028416e-06 0.00045217306
-8.0358717e-05 -5.3028593e-06 0.00045217457
-7.9542122e-05 -5.3028084e-06 0.00045217021
-7.8725549e-05 -5.302757e-06 0.00045216584
-7.7908982e-05 -5.3027056e-06 0.00045216148
-7.7092438e-05 -5.3026547e-06 0.00045215711
-7.6275908e-05 -5.3026033e-06 0.00045215272
-7.5459393e-05 -5.3025519e-06 0.00045214835
-7.4641466e-05 -5.3023991e-06 0.00045213531
-7.3823547e-05 -5.3022436e-06 0.00045212207
-7.3005671e-05 -5.3020876e-06 0.00045210877
-7.2187846e-05 -5.3019326e-06 0.00045209553
-7.1370072e-05 -5.3017766e-06 0.00045208225
-7.0552342e-05 -5.3016211e-06 0.00045206898
-6.9733811e-05 -5.3014005e-06 0.00045205018
-6.8914844e-05 -5.3011418e-06 0.00045202812
-6.8095964e-05 -5.300883e-06 0.00045200606
-6.7277164e-05 -5.3006247e-06 0.00045198403
-6.645843e-05 -5.300366e-06 0.00045196194
-6.563979e-05 -5.3001072e-06 0.00045193988
-6.4820837e-05 -5.2998166e-06 0.00045191511
-6.4001084e-05 -5.2994528e-06 0.00045188409
-6.3181447e-05 -5.299089e-06 0.00045185306
-6.236192e-05 -5.2987252e-06 0.00045182207
-6.1542509e-05 -5.2983619e-06 0.00045179107
-6.072321e-05 -5.2979981e-06 0.00045176005
-5.9904025e-05 -5.2976347e-06 0.00045172908
-5.908381e-05 -5.2971691e-06 0.00045168935
-5.8263722e-05 -5.2967021e-06 0.00045164954
-5.7443776e-05 -5.2962346e-06 0.00045160967
-5.6623972e-05 -5.2957671e-06 0.00045156982
-5.5804314e-05 -5.2953001e-06 0.00045152998
-5.4984801e-05 -5.2948326e-06 0.00045149014
-5.4164717e-05 -5.2942955e-06 0.00045144433
-5.3344444e-05 -5.2937235e-06 0.00045139555
-5.2524345e-05 -5.2931509e-06 0.00045134674
-5.1704425e-05 -5.2925789e-06 0.00045129796
-5.0884686e-05 -5.2920072e-06 0.00045124922
-5.0065126e-05 -5.2914361e-06 0.0004512005
-4.9245653e-05 -5.2908554e-06 0.00045115099
-4.842622e-05 -5.2902592e-06 0.00045110015
-4.7606973e-05 -5.2896635e-06 0.00045104936
-4.6787907e-05 -5.2890678e-06 0.00045099854
-4.5969027e-05 -5.288472e-06 0.00045094776
-4.5150326e-05 -5.2878763e-06 0.00045089694
-4.433182e-05 -5.2872811e-06 0.00045084622
-4.3513493e-05 -5.2866858e-06 0.00045079546
-4.2695352e-05 -5.286091e-06 0.00045074473
-4.1877389e-05 -5.2854957e-06 0.00045069397
-4.1059615e-05 -5.2849009e-06 0.00045064325
-4.0242023e-05 -5.2843061e-06 0.00045059252
-3.9424616e-05 -5.2837113e-06 0.00045054182
-3.8607395e-05 -5.2831169e-06 0.00045049115
-3.779036e-05 -5.2825235e-06 0.00045044051
-3.6973503e-05 -5.2819291e-06 0.00045038984
-3.6156998e-05 -5.2813589e-06 0.00045034123
-3.5340876e-05 -5.2808209e-06 0.00045029534
-3.4524925e-05 -5.2802825e-06 0.00045024944
-0.00015068933 -4.4678777e-06 0.00045024403
-0.00011172759 -4.4691037e-06 0.00045036757
-0.00011110342 -4.4766944e-06 0.00045113254
-0.00011030115 -4.4771682e-06 0.00045118027
-0.0001094987 -4.4776421e-06 0.00045122803
-0.00010869609 -4.4781159e-06 0.00045127579
-0.00010789331 -4.4785902e-06 0.00045132355
-0.00010709034 -4.4790636e-06 0.00045137128
-0.00010628659 -4.4795115e-06 0.00045141642
-0.00010548128 -4.4798999e-06 0.00045145556
-0.00010467583 -4.4802887e-06 0.00045149474
-0.00010387024 -4.480677e-06 0.00045153385
-0.00010306451 -4.4810654e-06 0.00045157303
-0.00010225864 -4.4814542e-06 0.00045161217
-0.00010145263 -4.481843e-06 0.00045165137
-0.00010064479 -4.4821563e-06 0.00045168295
-9.9836609e-05 -4.4824601e-06 0.00045171354
-9.9028315e-05 -4.4827634e-06 0.0004517441
-9.821992e-05 -4.4830667e-06 0.00045177469
-9.7411408e-05 -4.48337e-06 0.00045180527
-9.6602787e-05 -4.4836738e-06 0.00045183586
-9.5793177e-05 -4.4839362e-06 0.00045186229
-9.4982497e-05 -4.4841522e-06 0.00045188409
-9.4171752e-05 -4.4843691e-06 0.00045190594
-9.3360926e-05 -4.484586e-06 0.00045192777
-9.2550021e-05 -4.484803e-06 0.00045194963
-9.1739043e-05 -4.4850199e-06 0.00045197151
-9.0927839e-05 -4.48523e-06 0.00045199267
-9.0114976e-05 -4.4853609e-06 0.00045200586
-8.9302062e-05 -4.4854914e-06 0.00045201904
-8.8489091e-05 -4.485622e-06 0.0004520322
